# .PCD v.7 - Point Cloud Data file format
FIELDS x y z rgb imX imY
SIZE 4 4 4 4 4 4
TYPE F F F F F F
COUNT 1 1 1 1 1 1
WIDTH 839
HEIGHT 1
VIEWPOINT 0 0 0 1 0 0 0
POINTS 839
DATA ascii
0.06026908 0.67400002 0.01063572 1.3160558e-38 371 231
0.061542001 0.67500001 0.0106515 1.3797287e-38 372 231
0.062818423 0.676 0.01066728 1.3889841e-38 373 231
0.064003684 0.676 0.01066728 1.4446981e-38 374 231
0.065381795 0.67799997 0.010698839 1.5737361e-38 375 231
0.066668749 0.67900002 0.010714619 1.500914e-38 376 231
0.067959204 0.68000001 0.0107304 1.4640359e-38 377 231
0.069151461 0.68000001 0.0107304 1.4819708e-38 378 231
0.070550621 0.68199998 0.010761959 1.3621165e-38 379 231
0.071851604 0.68300003 0.01077774 1.4455614e-38 380 231
0.073049128 0.68300003 0.01077774 1.6852699e-38 381 231
0.074355356 0.68400002 0.01079352 1.4377454e-38 382 231
0.075775556 0.68599999 0.010825079 1.3732085e-38 383 231
0.077090554 0.68699998 0.010840859 1.2071812e-38 384 231
0.078409068 0.68800002 0.010856641 8.9371607e-39 385 231
0.079846799 0.69 0.010888199 9.8544255e-39 386 231
0.081174068 0.69099998 0.01090398 1.0684186e-38 387 231
0.082624078 0.69300002 0.010935539 1.0404378e-38 388 231
0.083960123 0.69400001 0.01095132 9.0214432e-39 389 231
0.085422389 0.69599998 0.010982879 8.1016589e-39 390 231
0.08664272 0.69599998 0.010982879 8.28569e-39 391 231
0.087989278 0.69700003 0.01099866 7.9205243e-39 392 231
0.089339346 0.69800001 0.01101444 8.4736967e-39 393 231
0.090822659 0.69999999 0.011045999 7.0954453e-39 394 231
0.092181489 0.70099998 0.011061779 6.7270216e-39 395 231
0.093410581 0.70099998 0.011061779 6.7291866e-39 396 231
0.094909683 0.70300001 0.01109334 6.7291866e-39 397 231
0.096279033 0.704 0.011109119 7.4624356e-39 398 231
0.097790405 0.70599997 0.011140679 8.5687818e-39 399 231
0.099168532 0.70700002 0.011156459 1.0688561e-38 400 231
0.10040814 0.70700002 0.011156459 1.1794907e-38 401 231
0.10179152 0.708 0.01117224 1.2164413e-38 402 231
0.10332392 0.70999998 0.011203799 1.1795629e-38 403 231
0.10471608 0.71100003 0.01121958 1.1792739e-38 404 231
0.1064098 0.71399999 0.011266919 1.1608348e-38 405 231
0.10796325 0.71600002 0.01129848 1.2889733e-38 406 231
0.10921864 0.71600002 0.01129848 1.2244364e-38 407 231
0.11047403 0.71600002 0.01129848 1.3065843e-38 408 231
0.11188546 0.71700001 0.01131426 1.2512669e-38 409 231
0.11314259 0.71700001 0.01131426 1.427085e-38 410 231
0.11439974 0.71700001 0.01131426 1.7313306e-38 411 231
0.11565688 0.71700001 0.01131426 1.5206123e-38 412 231
-0.074595563 0.63499999 0.0089069325 1.0133941e-38 253 232
-0.073366478 0.634 0.0088929068 1.4294641e-38 254 232
-0.072026931 0.63200003 0.0088648535 1.4755261e-38 255 232
-0.070806608 0.63099998 0.008850826 1.3927679e-38 256 232
-0.069589794 0.63 0.0088367993 1.4296103e-38 257 232
-0.068376496 0.62900001 0.0088227736 1.4205352e-38 258 232
-0.067059733 0.62699997 0.0087947194 1.4942917e-38 259 232
-0.065329194 0.62099999 0.0087105595 1.5495728e-38 260 232
-0.064033486 0.61900002 0.0086825071 1.5310978e-38 261 232
-0.062643096 0.616 0.0086404262 1.5127666e-38 262 232
-0.061463099 0.61500001 0.0086263996 1.4851077e-38 263 232
-0.060286615 0.61400002 0.0086123729 1.3745097e-38 264 232
-0.059113633 0.61299998 0.0085983463 1.36529e-38 265 232
-0.057849478 0.611 0.008570293 1.5310981e-38 266 232
-0.056406487 0.60699999 0.0085141864 1.5218784e-38 267 232
-0.054795172 0.60100001 0.0084300265 1.4758157e-38 268 232
-0.053652 0.60000002 0.0084159998 1.4204984e-38 269 232
-0.052512329 0.59899998 0.0084019732 1.4021308e-38 270 232
-0.05146208 0.59899998 0.0084019732 1.0149451e-38 271 232
-0.050327677 0.59799999 0.0083879465 8.8439239e-39 272 232
-0.04919678 0.597 0.0083739199 9.0283166e-39 273 232
-0.048069384 0.59600002 0.0083598932 1.1323091e-38 274 232
-0.047024403 0.59600002 0.0083598932 1.0954309e-38 275 232
-0.045979414 0.59600002 0.0083598932 1.1138367e-38 276 232
-0.044934426 0.59600002 0.0083598932 1.3719844e-38 277 232
-0.043889441 0.59600002 0.0083598932 1.6132793e-38 278 232
-0.042844452 0.59600002 0.0083598932 1.8068902e-38 279 232
-0.041799467 0.59600002 0.0083598932 1.3091073e-38 280 232
-0.04082286 0.597 0.0083739199 7.8359223e-39 281 232
-0.039842743 0.59799999 0.0083879465 5.3264896e-39 282 232
-0.038859122 0.59899998 0.0084019732 9.1014868e-39 283 232
-0.037808876 0.59899998 0.0084019732 1.2712214e-38 284 232
-0.036819998 0.60000002 0.0084159998 1.7967365e-38 285 232
-0.035768002 0.60000002 0.0084159998 1.6874317e-38 286 232
-0.03477386 0.60100001 0.0084300265 1.6321145e-38 287 232
-0.033776212 0.602 0.0084440531 1.6046002e-38 288 232
-0.032720707 0.602 0.0084440531 1.567722e-38 289 232
-0.0317178 0.60299999 0.0084580798 1.5858017e-38 290 232
-0.030660538 0.60299999 0.0084580798 1.5304845e-38 291 232
-0.02965237 0.60399997 0.0084721064 1.4754194e-38 292 232
-0.028593356 0.60399997 0.0084721064 1.4754194e-38 293 232
-0.027534345 0.60399997 0.0084721064 1.4754557e-38 294 232
-0.026475331 0.60399997 0.0084721064 1.4570526e-38 295 232
-0.02550048 0.60600001 0.0085001597 1.4847109e-38 296 232
-0.024437958 0.60600001 0.0085001597 1.4847109e-38 297 232
-0.023414012 0.60699999 0.0085141864 1.512297e-38 298 232
-0.022423381 0.60900003 0.0085422397 1.4938939e-38 299 232
-0.021390667 0.61000001 0.0085562663 1.5122248e-38 300 232
-0.020354446 0.611 0.008570293 1.5306998e-38 301 232
-0.019314719 0.61199999 0.0085843196 1.5490311e-38 302 232
-0.018241677 0.61199999 0.0085843196 1.5305919e-38 303 232
-0.017196693 0.61299998 0.0085983463 1.4754548e-38 304 232
-0.0161219 0.61299998 0.0085983463 1.4754548e-38 305 232
-0.015071654 0.61400002 0.0086123729 1.4844944e-38 306 232
-0.0140179 0.61500001 0.0086263996 1.5305563e-38 307 232
-0.01296064 0.616 0.0086404262 1.5400633e-38 308 232
-0.011880586 0.616 0.0086404262 1.5400633e-38 309 232
-0.010800533 0.616 0.0086404262 1.5492829e-38 310 232
-0.0097520389 0.61799997 0.0086684795 1.5492829e-38 311 232
-0.0086825071 0.61900002 0.0086825071 1.5401712e-38 312 232
-0.0075971936 0.61900002 0.0086825071 1.5677939e-38 313 232
-0.0065223998 0.62 0.0086965328 1.5861967e-38 314 232
-0.0054353331 0.62 0.0086965328 1.5861967e-38 315 232
-0.0043622931 0.62199998 0.0087245861 1.6045279e-38 316 232
-0.0032717197 0.62199998 0.0087245861 1.6137476e-38 317 232
-0.0021846534 0.62300003 0.0087386137 1.6045282e-38 318 232
-0.00109408 0.62400001 0.0087526403 1.5584305e-38 319 232
0 0.62400001 0.0087526403 1.5399916e-38 320 232
0.00109408 0.62400001 0.0087526403 1.5399916e-38 321 232
0.0021916665 0.625 0.0087666661 1.5216249e-38 322 232
0.0032980198 0.62699997 0.0087947194 1.4939302e-38 323 232
0.0044043735 0.62800002 0.0088087469 1.5029339e-38 324 232
0.0055054668 0.62800002 0.0088087469 1.5029339e-38 325 232
0.0066275997 0.63 0.0088367993 1.4754543e-38 326 232
0.0077444729 0.63099998 0.008850826 1.4938936e-38 327 232
0.0088648535 0.63200003 0.0088648535 1.4754543e-38 328 232
0.0099729598 0.63200003 0.0088648535 1.4477598e-38 329 232
0.011116133 0.634 0.0088929068 1.475239e-38 330 232
0.012247032 0.63499999 0.0089069325 1.4844944e-38 331 232
0.0133604 0.63499999 0.0089069325 1.4661629e-38 332 232
0.014496559 0.63599998 0.0089209592 1.4661629e-38 333 232
0.015636226 0.63700002 0.0089349868 1.4570152e-38 334 232
0.016779399 0.63800001 0.0089490134 1.4293567e-38 335 232
0.017898027 0.63800001 0.0089490134 1.4476879e-38 336 232
0.019076265 0.63999999 0.0089770658 1.4476879e-38 337 232
0.020229958 0.64099997 0.0089910924 1.4752743e-38 338 232
0.02138716 0.64200002 0.00900512 1.4752743e-38 339 232
0.022512799 0.64200002 0.00900512 1.4661626e-38 340 232
0.023675259 0.64300001 0.0090191467 1.4661626e-38 341 232
0.024841227 0.64399999 0.0090331733 1.4476879e-38 342 232
0.026051028 0.64600003 0.0090612266 1.4292488e-38 343 232
0.02718368 0.64600003 0.0090612266 1.4475082e-38 344 232
0.028360168 0.64700001 0.0090752533 1.4567279e-38 345 232
0.029494572 0.64700001 0.0090752533 1.4384686e-38 346 232
0.03067632 0.648 0.0090892799 1.4845663e-38 347 232
0.03186157 0.64899999 0.0091033066 1.5122967e-38 348 232
0.033050328 0.64999998 0.0091173323 1.5215522e-38 349 232
0.034295198 0.65200001 0.0091453865 1.5398115e-38 350 232
0.035492726 0.653 0.0091594132 1.5582506e-38 351 232
0.036693759 0.65399998 0.0091734398 1.5583952e-38 352 232
0.037898298 0.65499997 0.0091874655 1.1712095e-38 353 232
0.039046731 0.65499997 0.0091874655 1.0508507e-38 354 232
0.0403179 0.65700001 0.0092155198 1.2721202e-38 355 232
0.041469838 0.65700001 0.0092155198 1.4924887e-38 356 232
0.042686652 0.65799999 0.0092295464 1.4648658e-38 357 232
0.044040225 0.66100001 0.0092716264 1.3543397e-38 358 232
0.045199182 0.66100001 0.0092716264 1.1884236e-38 359 232
0.046498399 0.66299999 0.0092996797 1.3642801e-38 360 232
0.047732744 0.66399997 0.0093137063 1.5025737e-38 361 232
0.04904424 0.66600001 0.0093417596 1.6867128e-38 362 232
0.050211959 0.66600001 0.0093417596 1.511577e-38 363 232
0.051379681 0.66600001 0.0093417596 1.4003639e-38 364 232
0.052626297 0.667 0.0093557863 1.0039227e-38 365 232
0.053876422 0.66799998 0.0093698129 1.2508706e-38 366 232
0.055212468 0.67000002 0.0093978662 1.3154076e-38 367 232
0.056471359 0.671 0.0094118929 1.3155886e-38 368 232
0.057733759 0.67199999 0.0094259195 1.370906e-38 369 232
0.058911994 0.67199999 0.0094259195 1.3430678e-38 370 232
0.06026908 0.67400002 0.0094539737 1.2969701e-38 371 232
0.061542001 0.67500001 0.0094679995 1.3611457e-38 372 232
0.062818423 0.676 0.0094820261 1.4441577e-38 373 232
0.06419304 0.67799997 0.0095100794 1.4728591e-38 374 232
0.065381795 0.67799997 0.0095100794 1.4728591e-38 375 232
0.066668749 0.67900002 0.009524107 1.4634962e-38 376 232
0.068159081 0.68199998 0.009566186 1.3713007e-38 377 232
0.069354847 0.68199998 0.009566186 1.4812165e-38 378 232
0.070654072 0.68300003 0.0095802136 1.4258991e-38 379 232
0.071851604 0.68300003 0.0095802136 1.4449499e-38 380 232
0.073156074 0.68400002 0.0095942402 1.739976e-38 381 232
0.074572764 0.68599999 0.0096222926 1.4654764e-38 382 232
0.075886011 0.68699998 0.0096363192 1.4470733e-38 383 232
0.077202775 0.68800002 0.0096503468 1.3271817e-38 384 232
0.078636996 0.69 0.0096783992 1.1796327e-38 385 232
0.079962514 0.69099998 0.0096924258 1.1331376e-38 386 232
0.081409015 0.69300002 0.0097204801 1.0409061e-38 387 232
0.082743309 0.69400001 0.0097345067 8.7495423e-39 388 232
0.083960123 0.69400001 0.0097345067 8.4729554e-39 389 232
0.085422389 0.69599998 0.0097625591 7.9233941e-39 390 232
0.086767212 0.69700003 0.0097765867 8.7531548e-39 391 232
0.088115521 0.69800001 0.0097906133 8.3887037e-39 392 232
0.089595325 0.69999999 0.0098186666 8.6656507e-39 393 232
0.090822659 0.69999999 0.0098186666 8.6670955e-39 394 232
0.092181489 0.70099998 0.0098326923 9.1280736e-39 395 232
0.093677096 0.70300001 0.0098607466 9.6783733e-39 396 232
0.095044687 0.704 0.0098747732 9.8627646e-39 397 232
0.096552551 0.70599997 0.0099028256 1.0966228e-38 398 232
0.097928926 0.70700002 0.0099168532 1.1611598e-38 399 232
0.099168532 0.70700002 0.0099168532 1.2899084e-38 400 232
0.10040814 0.70700002 0.0099168532 1.2806888e-38 401 232
0.10179152 0.708 0.0099308798 1.1980005e-38 402 232
0.10346945 0.71100003 0.0099729598 1.1610863e-38 403 232
0.10501064 0.713 0.010001013 1.2706771e-38 404 232
0.10670786 0.71600002 0.010043093 1.187665e-38 405 232
0.10796325 0.71600002 0.010043093 1.3343149e-38 406 232
0.10937118 0.71700001 0.01005712 1.2974726e-38 407 232
0.11062831 0.71700001 0.01005712 1.3342786e-38 408 232
0.11188546 0.71700001 0.01005712 1.306584e-38 409 232
0.11314259 0.71700001 0.01005712 1.445596e-38 410 232
0.11471885 0.71899998 0.010085173 1.7129994e-38 411 232
-0.073366478 0.634 0.0077812932 1.3925863e-38 254 233
-0.072254866 0.634 0.0077812932 1.4479035e-38 255 233
-0.070918828 0.63200003 0.0077567468 1.3743651e-38 256 233
-0.069589794 0.63 0.0077321995 1.3928042e-38 257 233
-0.068376496 0.62900001 0.0077199261 1.4112435e-38 258 233
-0.067059733 0.62699997 0.0076953797 1.503439e-38 259 233
-0.065749995 0.625 0.0076708333 1.5311334e-38 260 233
-0.064136937 0.62 0.0076094666 1.5311334e-38 261 233
-0.062846474 0.61799997 0.0075849192 1.5218778e-38 262 233
-0.061463099 0.61500001 0.0075481003 1.4850356e-38 263 233
-0.060286615 0.61400002 0.0075358269 1.4571616e-38 264 233
-0.059113633 0.61299998 0.007523553 1.4202834e-38 265 233
-0.05794416 0.61199999 0.0075112795 1.494292e-38 266 233
-0.056406487 0.60699999 0.0074499133 1.5127313e-38 267 233
-0.054977518 0.60299999 0.0074008191 1.4575567e-38 268 233
-0.053741422 0.60100001 0.0073762736 1.4022393e-38 269 233
-0.0526 0.60000002 0.0073640002 1.4112061e-38 270 233
-0.051548 0.60000002 0.0073640002 1.0977411e-38 271 233
-0.050411835 0.59899998 0.0073517263 9.2134295e-39 272 233
-0.049279183 0.59799999 0.0073394529 8.6602557e-39 273 233
-0.048150036 0.597 0.0073271794 1.0863931e-38 274 233
-0.047024403 0.59600002 0.0073149065 1.0586984e-38 275 233
-0.045979414 0.59600002 0.0073149065 1.067848e-38 276 233
-0.044934426 0.59600002 0.0073149065 1.3167761e-38 277 233
-0.043889441 0.59600002 0.0073149065 1.6132793e-38 278 233
-0.042844452 0.59600002 0.0073149065 1.8068902e-38 279 233
-0.041799467 0.59600002 0.0073149065 1.3644603e-38 280 233
-0.04082286 0.597 0.0073271794 8.2968976e-39 281 233
-0.039842743 0.59799999 0.0073394529 5.5101634e-39 282 233
-0.038859122 0.59899998 0.0073517263 8.82526e-39 283 233
-0.037871998 0.60000002 0.0073640002 1.2434907e-38 284 233
-0.036881365 0.60100001 0.0073762736 1.7874449e-38 285 233
-0.035827611 0.60100001 0.0073762736 1.6414059e-38 286 233
-0.034831718 0.602 0.0073885461 1.6045635e-38 287 233
-0.033776212 0.602 0.0073885461 1.6137479e-38 288 233
-0.032775056 0.60299999 0.0074008191 1.5860891e-38 289 233
-0.031770397 0.60399997 0.0074130925 1.5582506e-38 290 233
-0.030711384 0.60399997 0.0074130925 1.5305919e-38 291 233
-0.02965237 0.60399997 0.0074130925 1.5120455e-38 292 233
-0.028593356 0.60399997 0.0074130925 1.5212652e-38 293 233
-0.02762552 0.60600001 0.0074376399 1.5028983e-38 294 233
-0.026563 0.60600001 0.0074376399 1.5121179e-38 295 233
-0.02550048 0.60600001 0.0074376399 1.4938586e-38 296 233
-0.024437958 0.60600001 0.0074376399 1.5122617e-38 297 233
-0.023414012 0.60699999 0.0074499133 1.4664513e-38 298 233
-0.0224602 0.61000001 0.0074867331 1.4572317e-38 299 233
-0.021425733 0.611 0.0074990061 1.4664513e-38 300 233
-0.020387759 0.61199999 0.0075112795 1.4664513e-38 301 233
-0.019346278 0.61299998 0.007523553 1.5306642e-38 302 233
-0.018271485 0.61299998 0.007523553 1.5030055e-38 303 233
-0.017224746 0.61400002 0.0075358269 1.4386484e-38 304 233
-0.0161482 0.61400002 0.0075358269 1.447868e-38 305 233
-0.015096201 0.61500001 0.0075481003 1.4940021e-38 306 233
-0.014040694 0.616 0.0075603728 1.5216968e-38 307 233
-0.01296064 0.616 0.0075603728 1.5585746e-38 308 233
-0.011919159 0.61799997 0.0075849192 1.5401715e-38 309 233
-0.010835599 0.61799997 0.0075849192 1.5860888e-38 310 233
-0.0097678201 0.61900002 0.0075971936 1.5953084e-38 311 233
-0.0086825071 0.61900002 0.0075971936 1.6046002e-38 312 233
-0.0075971936 0.61900002 0.0075971936 1.6046002e-38 313 233
-0.0065223998 0.62 0.0076094666 1.5861614e-38 314 233
-0.0054528662 0.62199998 0.0076340134 1.5769418e-38 315 233
-0.0043693068 0.62300003 0.0076462864 1.5769418e-38 316 233
-0.00327698 0.62300003 0.0076462864 1.5677223e-38 317 233
-0.0021881601 0.62400001 0.0076585598 1.5492113e-38 318 233
-0.0010958333 0.625 0.0076708333 1.5215166e-38 319 233
0 0.625 0.0076708333 1.4846387e-38 320 233
0.0010958333 0.625 0.0076708333 1.5122973e-38 321 233
0.0021986798 0.62699997 0.0076953797 1.5215168e-38 322 233
0.0033032801 0.62800002 0.0077076531 1.5122973e-38 323 233
0.0044043735 0.62800002 0.0077076531 1.5122254e-38 324 233
0.0055142329 0.62900001 0.0077199261 1.5030058e-38 325 233
0.0066381195 0.63099998 0.0077444729 1.4846738e-38 326 233
0.0077567468 0.63200003 0.0077567468 1.5123323e-38 327 233
0.0088648535 0.63200003 0.0077567468 1.5029688e-38 328 233
0.010004519 0.634 0.0077812932 1.4937493e-38 329 233
0.011133666 0.63499999 0.0077935657 1.4844944e-38 330 233
0.012266319 0.63599998 0.0078058392 1.493714e-38 331 233
0.013381439 0.63599998 0.0078058392 1.4479035e-38 332 233
0.014519353 0.63700002 0.0078181131 1.4571231e-38 333 233
0.015660774 0.63800001 0.007830387 1.4477954e-38 334 233
0.016779399 0.63800001 0.007830387 1.4293923e-38 335 233
0.017954132 0.63999999 0.0078549329 1.4476163e-38 336 233
0.019106071 0.64099997 0.0078672068 1.4476163e-38 337 233
0.020229958 0.64099997 0.0078672068 1.4293567e-38 338 233
0.02138716 0.64200002 0.0078794798 1.4477598e-38 339 233
0.022547867 0.64300001 0.0078917528 1.4477954e-38 340 233
0.02371208 0.64399999 0.0079040267 1.4570149e-38 341 233
0.024918374 0.64600003 0.0079285735 1.5027888e-38 342 233
0.026051028 0.64600003 0.0079285735 1.4935692e-38 343 233
0.027225759 0.64700001 0.0079408465 1.4751671e-38 344 233
0.028360168 0.64700001 0.0079408465 1.4844225e-38 345 233
0.029540159 0.648 0.0079531204 1.4754192e-38 346 233
0.030723657 0.64899999 0.0079653924 1.5122973e-38 347 233
0.031910665 0.64999998 0.0079776663 1.5306998e-38 348 233
0.033152029 0.65200001 0.0080022132 1.5306998e-38 349 233
0.034347799 0.653 0.0080144862 1.5673979e-38 350 233
0.035492726 0.653 0.0080144862 1.5950567e-38 351 233
0.036693759 0.65399998 0.0080267601 1.5860182e-38 352 233
0.037898298 0.65499997 0.008039033 1.12504e-38 353 233
0.039046731 0.65499997 0.008039033 9.6758692e-39 354 233
0.0403179 0.65700001 0.0080635799 1.2902716e-38 355 233
0.041469838 0.65700001 0.0080635799 1.5109634e-38 356 233
0.042751525 0.65899998 0.0080881258 1.4740853e-38 357 233
0.044106852 0.662 0.0081249457 1.3174621e-38 358 233
0.04526756 0.662 0.0081249457 1.2252664e-38 359 233
0.046568532 0.66399997 0.0081494926 1.3731034e-38 360 233
0.047876518 0.66600001 0.0081740404 1.5575306e-38 361 233
0.04904424 0.66600001 0.0081740404 1.6219228e-38 362 233
0.050211959 0.66600001 0.0081740404 1.4098369e-38 363 233
0.051456824 0.667 0.0081863133 1.288973e-38 364 233
0.052705199 0.66799998 0.0081985854 1.1138372e-38 365 233
0.053876422 0.66799998 0.0081985854 1.2874608e-38 366 233
0.055212468 0.67000002 0.0082231332 1.3335946e-38 367 233
0.056471359 0.671 0.0082354061 1.3243763e-38 368 233
0.057733759 0.67199999 0.00824768 1.3336317e-38 369 233
0.059087332 0.67400002 0.0082722269 1.315372e-38 370 233
0.060358498 0.67500001 0.0082844999 1.3430665e-38 371 233
0.061633173 0.676 0.0082967728 1.3892004e-38 372 233
0.063004278 0.67799997 0.0083213197 1.4261146e-38 373 233
0.06419304 0.67799997 0.0083213197 1.4634612e-38 374 233
0.065478235 0.67900002 0.0083335936 1.4173635e-38 375 233
0.066766933 0.68000001 0.0083458666 1.4442312e-38 376 233
0.068159081 0.68199998 0.0083704125 1.4534507e-38 377 233
0.069456547 0.68300003 0.0083826864 1.4171467e-38 378 233
0.070654072 0.68300003 0.0083826864 1.3433902e-38 379 233
0.071956798 0.68400002 0.0083949603 1.4442659e-38 380 233
0.073156074 0.68400002 0.0083949603 1.9052441e-38 381 233
0.074681476 0.68699998 0.0084317802 1.4655846e-38 382 233
0.075886011 0.68699998 0.0084317802 1.520902e-38 383 233
0.077202775 0.68800002 0.0084440531 1.4655493e-38 384 233
0.078636996 0.69 0.0084686 1.4010123e-38 385 233
0.079962514 0.69099998 0.008480873 1.3544456e-38 386 233
0.081409015 0.69300002 0.0085054198 1.2253717e-38 387 233
0.082743309 0.69400001 0.0085176928 1.1423954e-38 388 233
0.083960123 0.69400001 0.0085176928 1.087078e-38 389 233
0.08554513 0.69700003 0.0085545136 9.8609541e-39 390 233
0.086767212 0.69700003 0.0085545136 1.0137181e-38 391 233
0.088115521 0.69800001 0.0085667865 9.9553147e-39 392 233
0.089595325 0.69999999 0.0085913334 1.0231542e-38 393 233
0.090952404 0.70099998 0.0086036054 1.0233342e-38 394 233
0.092444502 0.70300001 0.0086281532 1.0970909e-38 395 233
0.093810342 0.704 0.0086404262 1.1888908e-38 396 233
0.095314704 0.70599997 0.0086649731 1.1796353e-38 397 233
0.096689314 0.70700002 0.008677247 1.2898734e-38 398 233
0.097928926 0.70700002 0.008677247 1.3175681e-38 399 233
0.099308796 0.708 0.008689519 1.2530662e-38 400 233
0.10055015 0.708 0.008689519 1.1977488e-38 401 233
0.10207906 0.70999998 0.0087140659 1.2156481e-38 402 233
0.10346945 0.71100003 0.0087263398 1.1695862e-38 403 233
0.10501064 0.713 0.0087508867 1.3342801e-38 404 233
0.10670786 0.71600002 0.0087877065 1.2605236e-38 405 233
0.10796325 0.71600002 0.0087877065 1.3431031e-38 406 233
0.10937118 0.71700001 0.0087999795 1.4168596e-38 407 233
0.11062831 0.71700001 0.0087999795 1.3528966e-38 408 233
0.11188546 0.71700001 0.0087999795 1.3436771e-38 409 233
0.11345819 0.71899998 0.0088245263 1.4643228e-38 410 233
0.11471885 0.71899998 0.0088245263 1.694776e-38 411 233
-0.076424286 0.64099997 0.0067433193 1.382393e-38 252 234
-0.07518293 0.63999999 0.0067327996 1.1980019e-38 253 234
-0.073482201 0.63499999 0.0066801999 1.355672e-38 254 234
-0.072254866 0.634 0.0066696797 1.4294286e-38 255 234
-0.070918828 0.63200003 0.0066486401 1.4111708e-38 256 234
-0.069700256 0.63099998 0.0066381195 1.3835481e-38 257 234
-0.0684852 0.63 0.0066275997 1.3744727e-38 258 234
-0.067166694 0.62800002 0.0066065602 1.4758879e-38 259 234
-0.065960392 0.62699997 0.0065960395 1.4943989e-38 260 234
-0.064033486 0.61900002 0.0065118801 1.4943989e-38 261 234
-0.062846474 0.61799997 0.0065013594 1.5035466e-38 262 234
-0.061463099 0.61500001 0.0064697997 1.4851075e-38 263 234
-0.060384803 0.61500001 0.0064697997 1.4020961e-38 264 234
-0.059113633 0.61299998 0.0064487597 1.383693e-38 265 234
-0.05794416 0.61199999 0.0064382395 1.4758526e-38 266 234
-0.056685269 0.61000001 0.0064172 1.5035113e-38 267 234
-0.05506869 0.60399997 0.0063540796 1.4482294e-38 268 234
-0.053830836 0.602 0.0063330396 1.4205705e-38 269 234
-0.052687667 0.60100001 0.0063225199 1.4113141e-38 270 234
-0.051633913 0.60100001 0.0063225199 1.097849e-38 271 234
-0.050496001 0.60000002 0.0063120001 8.936837e-39 272 234
-0.04936159 0.59899998 0.0063014794 8.0152394e-39 273 234
-0.048230689 0.59799999 0.0062909597 1.0953959e-38 274 234
-0.047103297 0.597 0.0062804399 1.0769567e-38 275 234
-0.046056557 0.597 0.0062804399 1.0125662e-38 276 234
-0.045009818 0.597 0.0062804399 1.2522388e-38 277 234
-0.043963078 0.597 0.0062804399 1.5948046e-38 278 234
-0.042916339 0.597 0.0062804399 1.8068904e-38 279 234
-0.041939732 0.59799999 0.0062909597 1.4106304e-38 280 234
-0.040891241 0.59799999 0.0062909597 8.9433488e-39 281 234
-0.039976001 0.60000002 0.0063120001 5.8775166e-39 282 234
-0.03898887 0.60100001 0.0063225199 8.6401569e-39 283 234
-0.037935119 0.60100001 0.0063225199 1.2156888e-38 284 234
-0.036942732 0.602 0.0063330396 1.7781181e-38 285 234
-0.035887226 0.602 0.0063330396 1.6598809e-38 286 234
-0.034889579 0.60299999 0.0063435598 1.6045635e-38 287 234
-0.033832319 0.60299999 0.0063435598 1.5862334e-38 288 234
-0.032829411 0.60399997 0.0063540796 1.5770137e-38 289 234
-0.031770397 0.60399997 0.0063540796 1.5216252e-38 290 234
-0.030711384 0.60399997 0.0063540796 1.4847109e-38 291 234
-0.029750559 0.60600001 0.00637512 1.5122254e-38 292 234
-0.028688038 0.60600001 0.00637512 1.5306645e-38 293 234
-0.02762552 0.60600001 0.00637512 1.5031853e-38 294 234
-0.026563 0.60600001 0.00637512 1.5031853e-38 295 234
-0.02550048 0.60600001 0.00637512 1.4940377e-38 296 234
-0.024478285 0.60699999 0.0063856398 1.4663791e-38 297 234
-0.023491161 0.60900003 0.0064066802 1.4754911e-38 298 234
-0.022497021 0.611 0.0064277197 1.4386487e-38 299 234
-0.0214608 0.61199999 0.0064382395 1.4477247e-38 300 234
-0.020421071 0.61299998 0.0064487597 1.4938586e-38 301 234
-0.019346278 0.61299998 0.0064487597 1.5401362e-38 302 234
-0.018301293 0.61400002 0.0064592799 1.5769786e-38 303 234
-0.017252799 0.61500001 0.0064697997 1.5861617e-38 304 234
-0.016174501 0.61500001 0.0064697997 1.5769421e-38 305 234
-0.015120746 0.616 0.0064803199 1.6230397e-38 306 234
-0.014086278 0.61799997 0.0065013594 1.6045647e-38 307 234
-0.013002719 0.61799997 0.0065013594 1.5862334e-38 308 234
-0.011938446 0.61900002 0.0065118801 1.5770137e-38 309 234
-0.010853133 0.61900002 0.0065118801 1.5861614e-38 310 234
-0.0097678201 0.61900002 0.0065118801 1.6045647e-38 311 234
-0.0086965328 0.62 0.0065223998 1.6045285e-38 312 234
-0.0076094666 0.62 0.0065223998 1.5952731e-38 313 234
-0.0065434393 0.62199998 0.0065434393 1.539991e-38 314 234
-0.0054616337 0.62300003 0.00655396 1.5307714e-38 315 234
-0.0043693068 0.62300003 0.00655396 1.5121885e-38 316 234
-0.00327698 0.62300003 0.00655396 1.4752743e-38 317 234
-0.0021916665 0.625 0.006575 1.4386487e-38 318 234
-0.0010958333 0.625 0.006575 1.4478682e-38 319 234
0 0.625 0.006575 1.530521e-38 320 234
0.0010993399 0.62699997 0.0065960395 1.530521e-38 321 234
0.0022021867 0.62800002 0.0066065602 1.5397759e-38 322 234
0.0033137999 0.63 0.0066275997 1.5305563e-38 323 234
0.0044183997 0.63 0.0066275997 1.5030053e-38 324 234
0.0055229999 0.63 0.0066275997 1.5030053e-38 325 234
0.0066486401 0.63200003 0.0066486401 1.4938936e-38 326 234
0.0077812932 0.634 0.0066696797 1.4938936e-38 327 234
0.0088929068 0.634 0.0066696797 1.5305563e-38 328 234
0.0100203 0.63499999 0.0066801999 1.493714e-38 329 234
0.011151199 0.63599998 0.0066907196 1.4845663e-38 330 234
0.012285607 0.63700002 0.0067012399 1.4661273e-38 331 234
0.01340248 0.63700002 0.0067012399 1.4569077e-38 332 234
0.014542148 0.63800001 0.0067117601 1.4661273e-38 333 234
0.015709866 0.63999999 0.0067327996 1.4569433e-38 334 234
0.016858298 0.64099997 0.0067433193 1.4476879e-38 335 234
0.017982185 0.64099997 0.0067433193 1.4293567e-38 336 234
0.019106071 0.64099997 0.0067433193 1.4201371e-38 337 234
0.020261521 0.64200002 0.00675384 1.4383964e-38 338 234
0.021420473 0.64300001 0.0067643598 1.447616e-38 339 234
0.022547867 0.64300001 0.0067643598 1.4661273e-38 340 234
0.02371208 0.64399999 0.0067748795 1.493786e-38 341 234
0.024918374 0.64600003 0.00679592 1.5397759e-38 342 234
0.026091354 0.64700001 0.0068064397 1.5582509e-38 343 234
0.027225759 0.64700001 0.0068064397 1.5674705e-38 344 234
0.028404001 0.648 0.0068169599 1.5674705e-38 345 234
0.029585747 0.64899999 0.0068274797 1.5583228e-38 346 234
0.030770998 0.64999998 0.0068379994 1.5399197e-38 347 234
0.032008853 0.65200001 0.0068590399 1.5215519e-38 348 234
0.033152029 0.65200001 0.0068590399 1.5307714e-38 349 234
0.034347799 0.653 0.0068695596 1.5307351e-38 350 234
0.035547078 0.65399998 0.0068800794 1.5767971e-38 351 234
0.036749862 0.65499997 0.0068905996 1.6043131e-38 352 234
0.037898298 0.65499997 0.0068905996 1.0880176e-38 353 234
0.039165959 0.65700001 0.0069116396 1.0405881e-38 354 234
0.040379263 0.65799999 0.0069221598 1.3724924e-38 355 234
0.041596077 0.65899998 0.0069326796 1.5014564e-38 356 234
0.042881273 0.66100001 0.00695372 1.4830173e-38 357 234
0.044106852 0.662 0.0069642398 1.2431289e-38 358 234
0.045335937 0.66299999 0.0069747595 1.1048354e-38 359 234
0.046568532 0.66399997 0.0069852793 1.2245824e-38 360 234
0.047876518 0.66600001 0.0070063197 1.1969597e-38 361 234
0.049117878 0.667 0.0070168395 1.2518096e-38 362 234
0.050287351 0.667 0.0070168395 1.2518096e-38 363 234
0.051456824 0.667 0.0070168395 1.334784e-38 364 234
0.052705199 0.66799998 0.0070273597 1.3071253e-38 365 234
0.054037735 0.67000002 0.0070483997 1.3248432e-38 366 234
0.055294871 0.671 0.0070589199 1.288001e-38 367 234
0.056471359 0.671 0.0070589199 1.3244469e-38 368 234
0.057733759 0.67199999 0.0070694401 1.3336665e-38 369 234
0.059087332 0.67400002 0.0070904801 1.389525e-38 370 234
0.060358498 0.67500001 0.0071010003 1.5278544e-38 371 234
0.061633173 0.676 0.0071115191 1.4362698e-38 372 234
0.063004278 0.67799997 0.0071325595 1.390136e-38 373 234
0.064287722 0.67900002 0.0071430802 1.4266885e-38 374 234
0.065574668 0.68000001 0.0071535995 1.288395e-38 375 234
0.066766933 0.68000001 0.0071535995 1.4346508e-38 376 234
0.068159081 0.68199998 0.00717464 1.7388605e-38 377 234
0.069456547 0.68300003 0.0071851597 1.5287543e-38 378 234
0.070757523 0.68400002 0.0071956799 1.4088999e-38 379 234
0.072167195 0.68599999 0.0072167199 1.4271952e-38 380 234
0.073369987 0.68599999 0.0072167199 1.749844e-38 381 234
0.074681476 0.68699998 0.0072272392 1.5300862e-38 382 234
0.075996481 0.68800002 0.0072377604 1.5208666e-38 383 234
0.077427194 0.69 0.0072587994 1.5299061e-38 384 234
0.078750968 0.69099998 0.0072693196 1.4746246e-38 385 234
0.080193959 0.69300002 0.0072903596 1.5111059e-38 386 234
0.081409015 0.69300002 0.0072903596 1.4742278e-38 387 234
0.082743309 0.69400001 0.0073008798 1.437494e-38 388 234
0.084202074 0.69599998 0.0073219193 1.3821766e-38 389 234
0.08554513 0.69700003 0.00733244 1.2900183e-38 390 234
0.086891696 0.69800001 0.0073429602 1.2623236e-38 391 234
0.088367991 0.69999999 0.0073639993 1.188747e-38 392 234
0.089595325 0.69999999 0.0073639993 1.1334655e-38 393 234
0.0912119 0.70300001 0.0073955595 1.1429013e-38 394 234
0.092575997 0.704 0.0074060797 1.2259132e-38 395 234
0.09407685 0.70599997 0.0074271196 1.3267889e-38 396 234
0.095449716 0.70700002 0.0074376399 1.3267889e-38 397 234
0.096689314 0.70700002 0.0074376399 1.3724897e-38 398 234
0.098067433 0.708 0.0074481601 1.2895497e-38 399 234
0.099308796 0.708 0.0074481601 1.1784105e-38 400 234
0.10083419 0.70999998 0.0074691991 1.0124943e-38 401 234
0.10222284 0.71100003 0.0074797203 1.0300697e-38 402 234
0.10346945 0.71100003 0.0074797203 1.1499239e-38 403 234
0.10515791 0.71399999 0.0075112795 1.315372e-38 404 234
0.10670786 0.71600002 0.00753232 1.2785296e-38 405 234
0.10796325 0.71600002 0.00753232 1.3612906e-38 406 234
0.10937118 0.71700001 0.0075428397 1.4903644e-38 407 234
0.1109369 0.71899998 0.0075638802 1.3528613e-38 408 234
0.11219755 0.71899998 0.0075638802 1.2975798e-38 409 234
0.11345819 0.71899998 0.0075638802 1.4551386e-38 410 234
0.1148784 0.72000003 0.0075743999 1.7040309e-38 411 234
-0.076424286 0.64099997 0.0056194332 1.3823933e-38 252 235
-0.07518293 0.63999999 0.0056106662 1.2072217e-38 253 235
-0.073713638 0.63700002 0.0055843666 1.3188297e-38 254 235
-0.07236883 0.63499999 0.0055668331 1.4109894e-38 255 235
-0.070918828 0.63200003 0.0055405335 1.3743648e-38 256 235
-0.069810718 0.63200003 0.0055405335 1.3835844e-38 257 235
-0.068593897 0.63099998 0.0055317665 1.3928042e-38 258 235
-0.067273647 0.62900001 0.0055142329 1.4481216e-38 259 235
-0.066065602 0.62800002 0.0055054668 1.4851077e-38 260 235
-0.064033486 0.61900002 0.0054265666 1.5127666e-38 261 235
-0.062846474 0.61799997 0.0054177996 1.5035466e-38 262 235
-0.061463099 0.61500001 0.0053915 1.4851075e-38 263 235
-0.060384803 0.61500001 0.0053915 1.4113156e-38 264 235
-0.059113633 0.61299998 0.0053739659 1.4020961e-38 265 235
-0.05794416 0.61199999 0.0053651999 1.466633e-38 266 235
-0.056592338 0.60900003 0.0053388998 1.5127669e-38 267 235
-0.05506869 0.60399997 0.0052950666 1.475816e-38 268 235
-0.053920254 0.60299999 0.0052862996 1.4204986e-38 269 235
-0.052862998 0.60299999 0.0052862996 1.4389368e-38 270 235
-0.051719822 0.602 0.0052775331 1.1255075e-38 271 235
-0.050580159 0.60100001 0.0052687665 8.7528059e-39 272 235
-0.049444001 0.60000002 0.00526 7.6460982e-39 273 235
-0.048311342 0.59899998 0.005251233 1.0862129e-38 274 235
-0.047261097 0.59899998 0.005251233 1.0862129e-38 275 235
-0.046133704 0.59799999 0.0052424665 1.0125662e-38 276 235
-0.04508521 0.59799999 0.0052424665 1.1969216e-38 277 235
-0.044036716 0.59799999 0.0052424665 1.59466e-38 278 235
-0.043060109 0.59899998 0.005251233 1.8435882e-38 279 235
-0.042009864 0.59899998 0.005251233 1.4474729e-38 280 235
-0.041028 0.60000002 0.00526 9.3117754e-39 281 235
-0.040042628 0.60100001 0.0052687665 5.4183419e-39 282 235
-0.039053746 0.602 0.0052775331 7.9051114e-39 283 235
-0.03799824 0.602 0.0052775331 1.1785947e-38 284 235
-0.037004098 0.60299999 0.0052862996 1.8054891e-38 285 235
-0.035946839 0.60299999 0.0052862996 1.6966514e-38 286 235
-0.034889579 0.60299999 0.0052862996 1.641334e-38 287 235
-0.033888426 0.60399997 0.0052950666 1.6046002e-38 288 235
-0.032829411 0.60399997 0.0052950666 1.6138198e-38 289 235
-0.031875599 0.60600001 0.0053125997 1.5952015e-38 290 235
-0.030813077 0.60600001 0.0053125997 1.5306645e-38 291 235
-0.029750559 0.60600001 0.0053125997 1.5031853e-38 292 235
-0.028688038 0.60600001 0.0053125997 1.5124049e-38 293 235
-0.02762552 0.60600001 0.0053125997 1.5124405e-38 294 235
-0.026606834 0.60699999 0.0053213662 1.5124405e-38 295 235
-0.025542559 0.60699999 0.0053213662 1.5215522e-38 296 235
-0.024518611 0.60799998 0.0053301333 1.5122967e-38 297 235
-0.023529733 0.61000001 0.0053476668 1.5399197e-38 298 235
-0.022533838 0.61199999 0.0053651999 1.5306642e-38 299 235
-0.021495864 0.61299998 0.0053739659 1.5031856e-38 300 235
-0.020454386 0.61400002 0.0053827334 1.5584671e-38 301 235
-0.019377839 0.61400002 0.0053827334 1.5861621e-38 302 235
-0.018331099 0.61500001 0.0053915 1.6045652e-38 303 235
-0.017280852 0.616 0.0054002665 1.6045652e-38 304 235
-0.016200799 0.616 0.0054002665 1.6045652e-38 305 235
-0.015120746 0.616 0.0054002665 1.6138201e-38 306 235
-0.014086278 0.61799997 0.0054177996 1.6138201e-38 307 235
-0.013002719 0.61799997 0.0054177996 1.6045647e-38 308 235
-0.011938446 0.61900002 0.0054265666 1.6045647e-38 309 235
-0.010853133 0.61900002 0.0054265666 1.5677226e-38 310 235
-0.0097835995 0.62 0.0054353331 1.540028e-38 311 235
-0.0086965328 0.62 0.0054353331 1.5399194e-38 312 235
-0.00762174 0.62099999 0.0054440997 1.4937856e-38 313 235
-0.0065434393 0.62199998 0.0054528662 1.4479033e-38 314 235
-0.0054616337 0.62300003 0.0054616337 1.4847456e-38 315 235
-0.0043763202 0.62400001 0.0054704002 1.5121529e-38 316 235
-0.0032822399 0.62400001 0.0054704002 1.4844941e-38 317 235
-0.0021986798 0.62699997 0.0054966994 1.4754192e-38 318 235
-0.0010993399 0.62699997 0.0054966994 1.4754192e-38 319 235
0 0.62699997 0.0054966994 1.4753839e-38 320 235
0.0011010934 0.62800002 0.0055054668 1.4661641e-38 321 235
0.0022056934 0.62900001 0.0055142329 1.5028983e-38 322 235
0.0033190597 0.63099998 0.0055317665 1.5028983e-38 323 235
0.004425413 0.63099998 0.0055317665 1.4937504e-38 324 235
0.0055317665 0.63099998 0.0055317665 1.4937504e-38 325 235
0.0066486401 0.63200003 0.0055405335 1.4754192e-38 326 235
0.0077812932 0.634 0.0055580665 1.4754192e-38 327 235
0.0089209592 0.63599998 0.0055755996 1.4845663e-38 328 235
0.010036079 0.63599998 0.0055755996 1.4845663e-38 329 235
0.011168733 0.63700002 0.0055843666 1.4844941e-38 330 235
0.012304893 0.63800001 0.0055931332 1.4844941e-38 331 235
0.01342352 0.63800001 0.0055931332 1.4661629e-38 332 235
0.014610525 0.64099997 0.0056194332 1.484566e-38 333 235
0.015734414 0.64099997 0.0056194332 1.4752746e-38 334 235
0.016858298 0.64099997 0.0056194332 1.466055e-38 335 235
0.01801024 0.64200002 0.0056281998 1.4476516e-38 336 235
0.019135879 0.64200002 0.0056281998 1.4660547e-38 337 235
0.020293079 0.64300001 0.0056369668 1.4752743e-38 338 235
0.021453787 0.64399999 0.0056457333 1.5029688e-38 339 235
0.022582933 0.64399999 0.0056457333 1.4938939e-38 340 235
0.023785722 0.64600003 0.0056632664 1.5307361e-38 341 235
0.024956945 0.64700001 0.0056720334 1.5674705e-38 342 235
0.026091354 0.64700001 0.0056720334 1.5766902e-38 343 235
0.027225759 0.64700001 0.0056720334 1.5766902e-38 344 235
0.028447833 0.64899999 0.0056895665 1.5674705e-38 345 235
0.029585747 0.64899999 0.0056895665 1.5583228e-38 346 235
0.030770998 0.64999998 0.005698333 1.5399197e-38 347 235
0.032008853 0.65200001 0.0057158666 1.5582862e-38 348 235
0.033152029 0.65200001 0.0057158666 1.5582862e-38 349 235
0.034400396 0.65399998 0.0057333997 1.5582859e-38 350 235
0.035547078 0.65399998 0.0057333997 1.5951283e-38 351 235
0.036749862 0.65499997 0.0057421662 1.5950214e-38 352 235
0.038014017 0.65700001 0.0057596997 1.0602866e-38 353 235
0.039165959 0.65700001 0.0057596997 1.0588477e-38 354 235
0.04044063 0.65899998 0.0057772328 1.4275943e-38 355 235
0.04172232 0.66100001 0.0057947668 1.5107483e-38 356 235
0.042946145 0.662 0.0058035329 1.4739059e-38 357 235
0.044173479 0.66299999 0.0058122999 1.3534026e-38 358 235
0.045404319 0.66399997 0.0058210664 1.1321331e-38 359 235
0.046708796 0.66600001 0.0058385995 1.2697785e-38 360 235
0.047948405 0.667 0.0058473665 1.2144611e-38 361 235
0.049117878 0.667 0.0058473665 1.2693116e-38 362 235
0.050287351 0.667 0.0058473665 1.3522876e-38 363 235
0.051533967 0.66799998 0.0058561331 1.4265834e-38 364 235
0.052863002 0.67000002 0.0058736666 1.3620464e-38 365 235
0.054118387 0.671 0.0058824331 1.3706892e-38 366 235
0.055294871 0.671 0.0058824331 1.315372e-38 367 235
0.056555521 0.67199999 0.0058911997 1.3702573e-38 368 235
0.057905588 0.67400002 0.0059087332 1.3518542e-38 369 235
0.059175 0.67500001 0.0059174998 1.4354429e-38 370 235
0.06044792 0.676 0.0059262668 1.5921756e-38 371 235
0.061815511 0.67799997 0.0059437994 1.4547807e-38 372 235
0.063004278 0.67799997 0.0059437994 1.3902438e-38 373 235
0.064382397 0.68000001 0.0059613334 1.444336e-38 374 235
0.065574668 0.68000001 0.0059613334 1.3890545e-38 375 235
0.0669633 0.68199998 0.005978866 1.4531265e-38 376 235
0.068259016 0.68300003 0.0059876335 1.6559929e-38 377 235
0.06955824 0.68400002 0.0059964 1.5562337e-38 378 235
0.070964411 0.68599999 0.0060139326 1.5100999e-38 379 235
0.072167195 0.68599999 0.0060139326 1.4186952e-38 380 235
0.073476933 0.68699998 0.0060226996 1.6676234e-38 381 235
0.074790187 0.68800002 0.0060314666 1.5118269e-38 382 235
0.075996481 0.68800002 0.0060314666 1.4565096e-38 383 235
0.077427194 0.69 0.0060489997 1.5196063e-38 384 235
0.078750968 0.69099998 0.0060577663 1.4090074e-38 385 235
0.080193959 0.69300002 0.0060753003 1.5008418e-38 386 235
0.081409015 0.69300002 0.0060753003 1.5376842e-38 387 235
0.082981758 0.69599998 0.0061015999 1.4827992e-38 388 235
0.084202074 0.69599998 0.0061015999 1.4920188e-38 389 235
0.08554513 0.69700003 0.0061103669 1.409404e-38 390 235
0.086891696 0.69800001 0.006119133 1.4001844e-38 391 235
0.088367991 0.69999999 0.0061366665 1.3541588e-38 392 235
0.089723319 0.70099998 0.0061454331 1.2803664e-38 393 235
0.0912119 0.70300001 0.0061629666 1.2895863e-38 394 235
0.092838995 0.70599997 0.0061892662 1.3356841e-38 395 235
0.09407685 0.70599997 0.0061892662 1.3906056e-38 396 235
0.095449716 0.70700002 0.0061980332 1.3721665e-38 397 235
0.096689314 0.70700002 0.0061980332 1.3902809e-38 398 235
0.098067433 0.708 0.0062067998 1.3349635e-38 399 235
0.099589325 0.70999998 0.0062243328 1.1223381e-38 400 235
0.10097622 0.71100003 0.0062330998 9.9326417e-39 401 235
0.10222284 0.71100003 0.0062330998 1.0760249e-38 402 235
0.10376051 0.713 0.0062506334 1.1866596e-38 403 235
0.10545248 0.71600002 0.0062769335 1.3062969e-38 404 235
0.10670786 0.71600002 0.0062769335 1.2970773e-38 405 235
0.10811404 0.71700001 0.0062857 1.3429586e-38 406 235
0.10967625 0.71899998 0.0063032326 1.3706173e-38 407 235
0.1109369 0.71899998 0.0063032326 1.3156224e-38 408 235
0.11219755 0.71899998 0.0063032326 1.3156224e-38 409 235
0.113616 0.72000003 0.0063120001 1.4459185e-38 410 235
0.11519751 0.722 0.0063295332 1.7225054e-38 411 235
-0.076543517 0.64200002 0.00450256 1.3824283e-38 252 236
-0.075300403 0.64099997 0.0044955462 1.1795979e-38 253 236
-0.07406079 0.63999999 0.0044885329 1.3096098e-38 254 236
-0.072938658 0.63999999 0.0044885329 1.3925859e-38 255 236
-0.07125546 0.63499999 0.0044534663 1.3927679e-38 256 236
-0.070031643 0.634 0.0044464534 1.4203907e-38 257 236
-0.068593897 0.63099998 0.004425413 1.4203907e-38 258 236
-0.0673806 0.63 0.0044183997 1.4388299e-38 259 236
-0.066065602 0.62800002 0.0044043735 1.4758523e-38 260 236
-0.064964511 0.62800002 0.0044043735 1.5311697e-38 261 236
-0.062948175 0.61900002 0.0043412535 1.4943636e-38 262 236
-0.061563037 0.616 0.0043202131 1.4667409e-38 263 236
-0.060384803 0.61500001 0.0043131998 1.3653978e-38 264 236
-0.059210066 0.61400002 0.0043061865 1.3377389e-38 265 236
-0.05794416 0.61199999 0.0042921598 1.4848921e-38 266 236
-0.056592338 0.60900003 0.0042711198 1.5218062e-38 267 236
-0.05506869 0.60399997 0.0042360532 1.5033668e-38 268 236
-0.053920254 0.60299999 0.0042290399 1.4480494e-38 269 236
-0.052862998 0.60299999 0.0042290399 1.4390447e-38 270 236
-0.051719822 0.602 0.0042220266 1.1532382e-38 271 236
-0.050580159 0.60100001 0.0042150132 8.8475238e-39 272 236
-0.049444001 0.60000002 0.0042079999 7.0954481e-39 273 236
-0.048391998 0.60000002 0.0042079999 1.0862131e-38 274 236
-0.047340002 0.60000002 0.0042079999 1.0769577e-38 275 236
-0.046210852 0.59899998 0.0042009866 1.0491565e-38 276 236
-0.045160607 0.59899998 0.0042009866 1.1874858e-38 277 236
-0.044110358 0.59899998 0.0042009866 1.5760768e-38 278 236
-0.043132 0.60000002 0.0042079999 1.8618473e-38 279 236
-0.04208 0.60000002 0.0042079999 1.4934986e-38 280 236
-0.041096382 0.60100001 0.0042150132 9.7720305e-39 281 236
-0.040109251 0.602 0.0042220266 5.2346709e-39 282 236
-0.039118618 0.60299999 0.0042290399 6.8938349e-39 283 236
-0.038061358 0.60299999 0.0042290399 1.1323171e-38 284 236
-0.037065465 0.60399997 0.0042360532 1.8145289e-38 285 236
-0.036006451 0.60399997 0.0042360532 1.6966517e-38 286 236
-0.034947436 0.60399997 0.0042360532 1.6413343e-38 287 236
-0.033888426 0.60399997 0.0042360532 1.6138198e-38 288 236
-0.032938119 0.60600001 0.0042500799 1.6046002e-38 289 236
-0.031875599 0.60600001 0.0042500799 1.5950933e-38 290 236
-0.030813077 0.60600001 0.0042500799 1.5305563e-38 291 236
-0.029750559 0.60600001 0.0042500799 1.5122973e-38 292 236
-0.028735379 0.60699999 0.0042570932 1.5215168e-38 293 236
-0.027671104 0.60699999 0.0042570932 1.5031856e-38 294 236
-0.026650665 0.60799998 0.0042641065 1.5031856e-38 295 236
-0.025584638 0.60799998 0.0042641065 1.5031856e-38 296 236
-0.024639593 0.611 0.0042851465 1.5216249e-38 297 236
-0.02360688 0.61199999 0.0042921598 1.5861621e-38 298 236
-0.022570658 0.61299998 0.0042991731 1.6230043e-38 299 236
-0.021530934 0.61400002 0.0043061865 1.6505907e-38 300 236
-0.020454386 0.61400002 0.0043061865 1.6229322e-38 301 236
-0.019409399 0.61500001 0.0043131998 1.5861617e-38 302 236
-0.018331099 0.61500001 0.0043131998 1.5861617e-38 303 236
-0.017280852 0.616 0.0043202131 1.586234e-38 304 236
-0.016200799 0.616 0.0043202131 1.5954536e-38 305 236
-0.015169838 0.61799997 0.0043342398 1.6230397e-38 306 236
-0.014109073 0.61900002 0.0043412535 1.6045647e-38 307 236
-0.01302376 0.61900002 0.0043412535 1.5769774e-38 308 236
-0.011938446 0.61900002 0.0043412535 1.5400633e-38 309 236
-0.010853133 0.61900002 0.0043412535 1.512297e-38 310 236
-0.0097835995 0.62 0.0043482664 1.4569796e-38 311 236
-0.0087105595 0.62099999 0.0043552797 1.4384683e-38 312 236
-0.0076340134 0.62199998 0.0043622931 1.4292488e-38 313 236
-0.00655396 0.62300003 0.0043693068 1.447868e-38 314 236
-0.0054704002 0.62400001 0.0043763202 1.4570877e-38 315 236
-0.0043763202 0.62400001 0.0043763202 1.5030058e-38 316 236
-0.0032875 0.625 0.004383333 1.4937504e-38 317 236
-0.0021986798 0.62699997 0.0043973597 1.5030058e-38 318 236
-0.0010993399 0.62699997 0.0043973597 1.5030058e-38 319 236
0 0.62800002 0.0044043735 1.4937507e-38 320 236
0.0011028467 0.62900001 0.0044113868 1.4568724e-38 321 236
0.0022091998 0.63 0.0044183997 1.4936784e-38 322 236
0.0033190597 0.63099998 0.004425413 1.5029339e-38 323 236
0.004425413 0.63099998 0.004425413 1.4845663e-38 324 236
0.0055405335 0.63200003 0.0044324268 1.4845663e-38 325 236
0.0066696797 0.634 0.0044464534 1.4661992e-38 326 236
0.0077935657 0.63499999 0.0044534663 1.4569796e-38 327 236
0.0089209592 0.63599998 0.0044604796 1.4844588e-38 328 236
0.01005186 0.63700002 0.0044674934 1.4844588e-38 329 236
0.011186266 0.63800001 0.0044745067 1.484566e-38 330 236
0.012343466 0.63999999 0.0044885329 1.484566e-38 331 236
0.013465599 0.63999999 0.0044885329 1.4938212e-38 332 236
0.014610525 0.64099997 0.0044955462 1.4938212e-38 333 236
0.01575896 0.64200002 0.00450256 1.493714e-38 334 236
0.016884599 0.64200002 0.00450256 1.4660194e-38 335 236
0.018038293 0.64300001 0.0045095733 1.475239e-38 336 236
0.019165685 0.64300001 0.0045095733 1.5121532e-38 337 236
0.02032464 0.64399999 0.0045165867 1.5306995e-38 338 236
0.021520413 0.64600003 0.0045306133 1.5675778e-38 339 236
0.022653066 0.64600003 0.0045306133 1.5675422e-38 340 236
0.023822539 0.64700001 0.0045376266 1.5675422e-38 341 236
0.024956945 0.64700001 0.0045376266 1.5583225e-38 342 236
0.02613168 0.648 0.00454464 1.5583225e-38 343 236
0.02726784 0.648 0.00454464 1.5674705e-38 344 236
0.028447833 0.64899999 0.0045516533 1.5674705e-38 345 236
0.029631332 0.64999998 0.0045586661 1.5583228e-38 346 236
0.030770998 0.64999998 0.0045586661 1.5583228e-38 347 236
0.032008853 0.65200001 0.0045726933 1.5583222e-38 348 236
0.033202872 0.653 0.0045797066 1.5399191e-38 349 236
0.034400396 0.65399998 0.0045867199 1.5673979e-38 350 236
0.035547078 0.65399998 0.0045867199 1.5950567e-38 351 236
0.036749862 0.65499997 0.0045937328 1.5949498e-38 352 236
0.038014017 0.65700001 0.0046077599 1.04174e-38 353 236
0.039225571 0.65799999 0.0046147732 1.086147e-38 354 236
0.040563367 0.66100001 0.0046358132 1.4918078e-38 355 236
0.041785441 0.662 0.0046428265 1.5291155e-38 356 236
0.043011017 0.66299999 0.0046498398 1.5014567e-38 357 236
0.044240102 0.66399997 0.0046568532 1.4453815e-38 358 236
0.045404319 0.66399997 0.0046568532 1.2517707e-38 359 236
0.046708796 0.66600001 0.0046708798 1.3707242e-38 360 236
0.047948405 0.667 0.0046778931 1.3246624e-38 361 236
0.049117878 0.667 0.0046778931 1.3796571e-38 362 236
0.050362743 0.66799998 0.0046849065 1.3980962e-38 363 236
0.051533967 0.66799998 0.0046849065 1.4074603e-38 364 236
0.052941896 0.671 0.0047059464 1.3798016e-38 365 236
0.054118387 0.671 0.0047059464 1.3611457e-38 366 236
0.055377278 0.67199999 0.0047129598 1.3796208e-38 367 236
0.056723841 0.67400002 0.0047269869 1.3794759e-38 368 236
0.057991501 0.67500001 0.0047339997 1.3886955e-38 369 236
0.059262663 0.676 0.0047410131 1.4261146e-38 370 236
0.06044792 0.676 0.0047410131 1.5367492e-38 371 236
0.061815511 0.67799997 0.0047550397 1.4360529e-38 372 236
0.063097201 0.67900002 0.0047620535 1.3622963e-38 373 236
0.064382397 0.68000001 0.0047690663 1.4255729e-38 374 236
0.065574668 0.68000001 0.0047690663 1.4440479e-38 375 236
0.0669633 0.68199998 0.004783093 1.4807836e-38 376 236
0.068259016 0.68300003 0.0047901068 1.5176259e-38 377 236
0.069761619 0.68599999 0.0048111463 1.4261868e-38 378 236
0.071067855 0.68699998 0.0048181596 1.6382367e-38 379 236
0.07227239 0.68699998 0.0048181596 1.4008313e-38 380 236
0.073476933 0.68699998 0.0048181596 1.5851865e-38 381 236
0.074790187 0.68800002 0.0048251734 1.4473622e-38 382 236
0.076217398 0.69 0.0048391996 1.3182883e-38 383 236
0.077427194 0.69 0.0048391996 1.3984558e-38 384 236
0.078978904 0.69300002 0.00486024 1.1495276e-38 385 236
0.080193959 0.69300002 0.00486024 1.3517095e-38 386 236
0.081526496 0.69400001 0.0048672534 1.425466e-38 387 236
0.082981758 0.69599998 0.0048812795 1.3707988e-38 388 236
0.084323063 0.69700003 0.0048882933 1.4445553e-38 389 236
0.085667863 0.69800001 0.0048953067 1.3531878e-38 390 236
0.087140664 0.69999999 0.0049093333 1.4177248e-38 391 236
0.088494234 0.70099998 0.0049163462 1.3719862e-38 392 236
0.089979313 0.70300001 0.0049303733 1.3627667e-38 393 236
0.091341652 0.704 0.0049373866 1.3626948e-38 394 236
0.092970498 0.70700002 0.0049584266 1.3442197e-38 395 236
0.094210111 0.70700002 0.0049584266 1.3898493e-38 396 236
0.095449716 0.70700002 0.0049584266 1.352971e-38 397 236
0.096826077 0.708 0.0049654399 1.3620093e-38 398 236
0.09834446 0.70999998 0.0049794666 1.3620093e-38 399 236
0.099589325 0.70999998 0.0049794666 1.1402005e-38 400 236
0.10097622 0.71100003 0.0049864799 1.1033222e-38 401 236
0.10251039 0.713 0.0050005065 1.1592155e-38 402 236
0.10390604 0.71399999 0.0050075199 1.2882893e-38 403 236
0.10545248 0.71600002 0.0050215465 1.306871e-38 404 236
0.1068569 0.71700001 0.0050285598 1.2331145e-38 405 236
0.10811404 0.71700001 0.0050285598 1.3335593e-38 406 236
0.10967625 0.71899998 0.0050425865 1.3151202e-38 407 236
0.1110912 0.72000003 0.0050496003 1.2876044e-38 408 236
0.1123536 0.72000003 0.0050496003 1.379764e-38 409 236
0.1139316 0.722 0.0050636264 1.4736495e-38 410 236
0.11519751 0.722 0.0050636264 1.6857353e-38 411 236
